ply
format ascii 1.0
element vertex 1391
property float x
property float y
property float z
property uchar red
property uchar green
property uchar blue
end_header
0.0828 -0.1054 0.1176 176 158 146
0.0923 -0.1163 0.1298 191 173 161
0.0968 -0.1206 0.1346 167 149 137
0.0978 -0.1206 0.1346 177 159 147
0.1023 -0.1248 0.1393 207 187 176
0.1070 -0.1292 0.1442 177 157 146
0.1862 -0.2249 0.2510 186 167 153
0.1046 -0.1251 0.1396 167 147 135
0.1881 -0.2249 0.2510 196 177 163
0.1092 -0.1292 0.1442 166 146 135
0.0950 -0.1125 0.1255 185 165 154
0.1103 -0.1292 0.1442 228 210 196
0.1005 -0.1166 0.1301 212 193 179
0.1124 -0.1291 0.1441 205 186 172
0.1081 -0.1230 0.1373 226 208 194
0.1050 -0.1195 0.1333 228 210 196
0.1145 -0.1290 0.1439 236 218 204
0.1193 -0.1331 0.1486 237 218 205
0.2066 -0.2284 0.2549 214 194 183
0.1253 -0.1372 0.1531 198 181 165
0.1091 -0.1195 0.1333 211 194 178
0.1059 -0.1160 0.1294 231 214 198
0.1188 -0.1290 0.1439 227 208 191
0.1161 -0.1248 0.1393 204 185 169
0.2144 -0.2284 0.2549 202 183 169
0.1376 -0.1454 0.1622 214 195 178
0.1165 -0.1230 0.1373 228 209 192
0.1131 -0.1195 0.1333 225 206 189
0.2216 -0.2320 0.2588 202 184 170
0.2236 -0.2320 0.2588 197 179 165
0.1374 -0.1413 0.1577 176 157 142
0.2310 -0.2355 0.2627 211 193 179
0.1397 -0.1412 0.1576 186 166 155
0.1263 -0.1265 0.1412 181 161 152
0.1309 -0.1300 0.1451 179 159 148
0.1393 -0.1372 0.1531 199 179 168
0.1364 -0.1332 0.1487 181 162 148
0.1458 -0.1413 0.1577 210 192 178
0.1415 -0.1371 0.1530 222 203 190
0.1233 -0.1195 0.1333 213 194 179
0.1384 -0.1330 0.1484 249 230 214
0.1439 -0.1371 0.1530 239 221 204
0.1253 -0.1195 0.1333 225 206 191
0.1363 -0.1289 0.1438 214 195 178
0.1418 -0.1330 0.1484 211 191 174
0.1236 -0.1160 0.1294 221 200 183
0.1486 -0.1372 0.1531 212 191 174
0.1543 -0.1414 0.1578 208 189 173
0.1554 -0.1412 0.1576 217 196 179
0.2630 -0.2320 0.2588 191 173 161
0.2649 -0.2284 0.2549 177 159 145
0.2668 -0.2284 0.2549 181 163 149
0.2687 -0.2284 0.2549 195 179 164
0.2707 -0.2284 0.2549 255 243 228
0.2684 -0.2249 0.2510 238 220 206
0.2726 -0.2284 0.2549 237 218 203
0.2746 -0.2284 0.2549 205 186 171
0.2765 -0.2284 0.2549 224 205 190
0.2785 -0.2284 0.2549 209 190 175
0.2804 -0.2284 0.2549 247 228 213
0.2823 -0.2284 0.2549 213 194 179
0.2843 -0.2284 0.2549 214 197 181
0.2818 -0.2249 0.2510 255 239 223
0.2793 -0.2214 0.2471 205 192 176
0.2901 -0.2284 0.2549 232 213 198
0.2965 -0.2320 0.2588 199 180 165
0.2940 -0.2284 0.2549 211 192 178
0.2959 -0.2284 0.2549 244 226 212
0.2952 -0.2249 0.2510 198 186 172
0.2971 -0.2249 0.2510 187 165 154
0.3037 -0.2284 0.2549 119 101 91
0.3056 -0.2284 0.2549 195 177 167
0.3076 -0.2284 0.2549 235 217 205
0.3095 -0.2284 0.2549 246 230 217
0.3115 -0.2284 0.2549 216 202 189
0.3134 -0.2284 0.2549 222 208 197
0.3154 -0.2284 0.2549 194 176 164
0.3124 -0.2249 0.2510 219 201 189
0.3173 -0.2284 0.2549 224 204 193
0.3192 -0.2284 0.2549 239 221 209
0.3261 -0.2320 0.2588 201 183 171
0.3281 -0.2320 0.2588 154 138 125
0.3351 -0.2355 0.2627 255 250 237
0.3320 -0.2320 0.2588 155 137 127
0.3340 -0.2320 0.2588 150 132 120
0.3360 -0.2320 0.2588 220 202 188
0.3328 -0.2284 0.2549 229 211 199
0.3399 -0.2320 0.2588 164 145 131
0.3367 -0.2284 0.2549 226 207 193
0.3439 -0.2320 0.2588 216 197 182
0.3406 -0.2284 0.2549 212 193 178
0.3425 -0.2284 0.2549 170 151 136
1.2173 -0.8118 0.9059 225 207 193
0.3445 -0.2284 0.2549 200 181 166
0.3498 -0.2320 0.2588 213 194 179
0.3518 -0.2320 0.2588 208 189 174
0.3591 -0.2355 0.2627 230 211 196
0.3611 -0.2355 0.2627 177 153 141
0.3577 -0.2320 0.2588 252 234 220
0.3596 -0.2320 0.2588 202 186 171
1.1825 -0.7626 0.8510 206 192 181
0.3616 -0.2320 0.2588 210 191 177
1.3917 -0.8927 0.9961 183 164 149
0.3691 -0.2355 0.2627 164 146 132
1.3993 -0.8927 0.9961 189 171 157
-1.4067 -0.9038 1.0000 245 192 138
-0.1269 -0.0815 0.0902 164 147 137
-1.3990 -0.9038 1.0000 239 186 132
-0.1262 -0.0815 0.0902 161 147 136
-1.3478 -0.8755 0.9686 242 189 135
-0.1310 -0.0851 0.0941 152 139 130
-1.0691 -0.6982 0.7725 245 194 139
-0.1357 -0.0886 0.0980 178 165 156
-1.0794 -0.7089 0.7843 241 188 134
-0.1295 -0.0851 0.0941 218 204 195
-0.7943 -0.5246 0.5804 232 179 125
-0.1342 -0.0886 0.0980 174 160 151
-0.1288 -0.0851 0.0941 155 142 133
-1.2969 -0.8613 0.9529 230 175 121
-0.1334 -0.0886 0.0980 166 153 144
-0.8810 -0.5884 0.6510 230 175 121
-0.1327 -0.0886 0.0980 188 175 166
-1.0607 -0.7124 0.7882 234 181 127
-0.1319 -0.0886 0.0980 166 153 144
-1.0547 -0.7124 0.7882 230 177 123
-1.0539 -0.7160 0.7922 227 174 120
-0.1044 -0.0709 0.0784 147 131 118
-1.3177 -0.9003 0.9961 227 174 120
-1.0522 -0.7230 0.8000 226 174 117
-0.1238 -0.0851 0.0941 210 194 181
-1.0461 -0.7230 0.8000 223 171 114
-0.1179 -0.0815 0.0902 194 180 167
-1.1980 -0.8329 0.9216 226 171 115
-1.0440 -0.7301 0.8078 224 169 113
-0.1419 -0.0992 0.1098 255 247 235
-0.1267 -0.0886 0.0980 227 214 205
-0.1166 -0.0815 0.0902 214 200 189
-1.0177 -0.7160 0.7922 218 163 109
-0.1159 -0.0815 0.0902 247 230 220
-1.0267 -0.7266 0.8039 219 164 110
-1.2546 -0.8932 0.9882 217 161 110
-0.1444 -0.1028 0.1137 151 137 128
-1.2124 -0.8684 0.9608 220 164 115
-0.1138 -0.0815 0.0902 161 148 140
-0.1089 -0.0780 0.0863 143 130 122
-1.2494 -0.9003 0.9961 222 167 113
-0.1279 -0.0922 0.1020 146 133 125
-0.1230 -0.0886 0.0980 151 138 130
-1.2418 -0.9003 0.9961 219 164 110
-0.1809 -0.1311 0.1451 168 155 147
-0.1222 -0.0886 0.0980 165 150 143
-0.9864 -0.7195 0.7961 215 160 106
-1.2314 -0.9038 1.0000 217 162 108
-0.1207 -0.0886 0.0980 227 210 202
-1.2142 -0.8967 0.9922 218 162 111
-0.1200 -0.0886 0.0980 221 204 196
-1.2162 -0.9038 1.0000 223 164 108
-0.1192 -0.0886 0.0980 204 187 177
-1.2086 -0.9038 1.0000 194 145 104
-1.2010 -0.9038 1.0000 242 219 203
-0.1413 -0.1063 0.1176 206 189 179
-1.1933 -0.9038 1.0000 176 163 155
-0.1217 -0.0922 0.1020 218 201 191
-1.1857 -0.9038 1.0000 171 156 149
-0.1069 -0.0815 0.0902 211 194 184
-1.1781 -0.9038 1.0000 194 181 175
-1.1705 -0.9038 1.0000 198 189 182
-0.1193 -0.0922 0.1020 222 205 195
-1.1629 -0.9038 1.0000 236 225 221
-0.1049 -0.0815 0.0902 232 218 209
-1.1552 -0.9038 1.0000 198 187 181
-0.1359 -0.1063 0.1176 236 222 213
-0.0951 -0.0744 0.0824 164 150 141
-0.0906 -0.0709 0.0784 163 149 140
-1.1431 -0.9003 0.9961 157 142 135
-0.1035 -0.0815 0.0902 187 173 164
-0.0990 -0.0780 0.0863 229 215 206
-0.1073 -0.0851 0.0941 196 179 171
-0.1021 -0.0815 0.0902 205 188 180
-1.0939 -0.8790 0.9725 202 188 179
-0.0926 -0.0744 0.0824 172 158 149
-0.1080 -0.0886 0.0980 227 210 202
-0.1236 -0.1028 0.1137 236 219 209
-0.1151 -0.0957 0.1059 231 214 204
-0.1176 -0.0992 0.1098 199 182 172
-0.1210 -0.1028 0.1137 208 191 181
-0.1243 -0.1063 0.1176 224 207 197
-0.1069 -0.0922 0.1020 226 209 199
-0.0946 -0.0815 0.0902 233 215 205
-0.2534 -0.2233 0.2471 202 186 173
-0.2515 -0.2233 0.2471 167 151 138
-0.2496 -0.2233 0.2471 228 210 198
-0.2478 -0.2233 0.2471 169 151 139
-0.1063 -0.0965 0.1068 205 188 178
-0.0937 -0.0851 0.0941 209 192 182
-0.2440 -0.2233 0.2471 176 160 147
-0.2421 -0.2233 0.2471 170 154 141
-0.2402 -0.2233 0.2471 201 185 172
-0.2346 -0.2197 0.2431 175 158 148
-0.2327 -0.2197 0.2431 175 158 148
-0.2309 -0.2197 0.2431 186 169 159
-0.2290 -0.2197 0.2431 239 222 212
-0.2272 -0.2197 0.2431 255 246 235
-0.2253 -0.2197 0.2431 237 223 212
-0.0897 -0.0882 0.0976 193 176 166
-0.0975 -0.0967 0.1070 187 170 160
-0.1008 -0.1008 0.1115 218 202 189
-0.0886 -0.0886 0.0980 215 199 186
-0.0851 -0.0851 0.0941 219 203 190
-0.2179 -0.2197 0.2431 221 203 191
-0.2160 -0.2197 0.2431 240 222 208
-0.0860 -0.0882 0.0976 218 201 188
-0.0934 -0.0967 0.1070 234 218 205
-0.0967 -0.1009 0.1117 185 169 156
-0.2053 -0.2162 0.2392 232 216 203
-0.0988 -0.1050 0.1162 166 149 139
-0.2082 -0.2233 0.2471 196 182 171
-0.0935 -0.1012 0.1120 229 213 202
-0.1998 -0.2162 0.2392 208 194 183
-0.2064 -0.2233 0.2471 205 191 180
-0.0964 -0.1053 0.1165 210 194 181
-0.2026 -0.2233 0.2471 214 201 185
-0.0945 -0.1052 0.1164 206 190 177
-0.0828 -0.0922 0.1020 200 184 171
-0.0901 -0.1012 0.1120 242 226 212
-0.0844 -0.0957 0.1059 234 222 210
-0.0884 -0.1012 0.1120 249 232 221
-0.0876 -0.1012 0.1120 228 211 200
-0.1822 -0.2127 0.2353 227 211 198
-0.0859 -0.1012 0.1120 216 199 189
-0.0849 -0.1011 0.1118 225 208 198
-0.0744 -0.0886 0.0980 231 214 204
-0.1768 -0.2127 0.2353 238 220 208
-0.1750 -0.2127 0.2353 237 221 208
-0.0859 -0.1055 0.1167 217 200 190
-0.0850 -0.1055 0.1167 203 186 176
-0.0807 -0.1012 0.1120 215 198 189
-0.1725 -0.2162 0.2392 170 153 145
-0.0764 -0.0968 0.1071 211 194 184
-0.1688 -0.2162 0.2392 222 205 195
-0.0815 -0.1055 0.1167 174 157 146
-0.0704 -0.0922 0.1020 183 166 156
-0.0734 -0.0971 0.1075 191 174 164
-0.1607 -0.2127 0.2353 226 212 199
-0.0757 -0.1014 0.1122 233 218 205
-0.0749 -0.1014 0.1122 184 168 155
-0.0699 -0.0957 0.1059 223 207 194
-0.0731 -0.1012 0.1120 224 207 197
-0.0657 -0.0922 0.1020 207 193 184
-0.0712 -0.1011 0.1118 219 202 192
-0.0667 -0.0957 0.1059 240 223 213
-0.0642 -0.0922 0.1020 243 226 216
-0.0634 -0.0922 0.1020 211 197 184
-0.0688 -0.1012 0.1120 201 184 174
-0.0658 -0.0968 0.1071 199 182 172
-0.1451 -0.2162 0.2392 237 221 206
-0.0727 -0.1097 0.1214 228 213 202
-0.0689 -0.1053 0.1165 244 230 221
-0.0664 -0.1028 0.1137 194 177 167
-0.0641 -0.0992 0.1098 188 172 159
-0.0698 -0.1096 0.1212 192 175 165
-0.0691 -0.1099 0.1215 221 204 194
-0.0629 -0.1014 0.1122 200 183 173
-0.0564 -0.0922 0.1020 225 208 200
-0.0612 -0.1014 0.1122 202 188 179
-0.1245 -0.2091 0.2314 219 202 192
-0.1287 -0.2162 0.2392 201 185 172
-0.1248 -0.2127 0.2353 180 164 151
-0.0533 -0.0922 0.1020 192 175 167
-0.0601 -0.1055 0.1167 192 175 167
-0.1233 -0.2162 0.2392 222 208 195
-0.1253 -0.2197 0.2431 220 206 193
-0.0638 -0.1136 0.1257 199 182 172
-0.0580 -0.1049 0.1160 185 168 157
-0.0574 -0.1053 0.1165 184 167 156
-0.1197 -0.2197 0.2431 223 207 194
-0.0565 -0.1053 0.1165 176 159 149
-0.0578 -0.1094 0.1211 175 161 150
-0.0546 -0.1052 0.1164 173 159 148
-0.0537 -0.1052 0.1164 168 154 143
-0.1122 -0.2233 0.2471 237 221 208
-0.0520 -0.1053 0.1165 178 164 153
-0.0492 -0.1012 0.1120 191 177 165
-0.1050 -0.2162 0.2392 222 206 193
-0.0503 -0.1055 0.1167 214 197 187
-0.0495 -0.1055 0.1167 188 171 161
-0.0441 -0.0957 0.1059 171 154 144
-0.0449 -0.0992 0.1098 211 194 184
-0.0425 -0.0957 0.1059 121 107 96
-0.0416 -0.0957 0.1059 168 154 143
-0.0450 -0.1055 0.1167 154 137 127
-0.0890 -0.2127 0.2353 173 159 150
-0.0450 -0.1097 0.1214 171 155 142
-0.0457 -0.1138 0.1259 148 132 120
-0.0882 -0.2197 0.2431 171 157 148
-0.0836 -0.2127 0.2353 172 158 149
-0.0421 -0.1096 0.1212 166 150 137
-0.0412 -0.1094 0.1211 182 166 153
-0.0387 -0.1053 0.1165 151 135 122
-0.0394 -0.1096 0.1212 171 155 142
-0.0385 -0.1097 0.1214 192 176 163
-0.0361 -0.1053 0.1165 179 162 150
-0.0753 -0.2197 0.2431 191 174 164
-0.0351 -0.1050 0.1162 178 162 150
-0.0758 -0.2268 0.2510 213 196 186
-0.0323 -0.0992 0.1098 166 150 137
-0.0315 -0.0992 0.1098 162 146 133
-0.0338 -0.1096 0.1212 168 154 141
-0.0287 -0.0957 0.1059 171 157 144
-0.0308 -0.1055 0.1167 164 149 137
-0.0311 -0.1097 0.1214 137 121 108
-0.0301 -0.1096 0.1212 191 173 159
-0.0265 -0.1028 0.1137 177 159 145
-0.0256 -0.0992 0.1098 191 173 159
-0.0284 -0.1138 0.1259 185 167 153
-0.0275 -0.1138 0.1259 207 190 176
-0.0239 -0.0992 0.1098 227 209 195
-0.0239 -0.1028 0.1137 235 217 203
-0.0246 -0.1097 0.1214 198 182 167
-0.0246 -0.1139 0.1261 192 176 161
-0.0228 -0.1097 0.1214 188 171 156
-0.0449 -0.2162 0.2392 196 180 167
-0.0218 -0.1094 0.1211 181 164 148
-0.0201 -0.1053 0.1165 186 170 154
-0.0200 -0.1096 0.1212 180 163 148
-0.0198 -0.1138 0.1259 191 174 159
-0.0181 -0.1096 0.1212 139 122 106
-0.0364 -0.2197 0.2431 226 208 194
-0.0172 -0.1094 0.1211 188 171 155
-0.0156 -0.1052 0.1164 176 159 143
-0.0141 -0.1009 0.1117 169 153 137
-0.0133 -0.1008 0.1115 163 147 134
-0.0248 -0.2162 0.2392 215 197 183
-0.0117 -0.1096 0.1212 185 168 152
-0.0234 -0.2197 0.2431 183 165 151
-0.0097 -0.0992 0.1098 136 118 98
-0.0089 -0.0992 0.1098 60 38 14
-0.0086 -0.1055 0.1167 149 124 96
-0.0175 -0.2162 0.2392 192 173 159
-0.0077 -0.1055 0.1167 140 112 74
-0.0157 -0.2162 0.2392 214 195 181
-0.0137 -0.2127 0.2353 186 167 152
-0.0139 -0.2162 0.2392 198 179 164
-0.0053 -0.0957 0.1059 145 113 75
-0.0052 -0.1097 0.1214 141 109 78
-0.0044 -0.1139 0.1261 152 123 89
-0.0039 -0.0992 0.1098 145 115 77
-0.0033 -0.1096 0.1212 153 124 88
-0.0024 -0.1096 0.1212 148 120 84
-0.0015 -0.1096 0.1212 147 119 83
-0.0006 -0.1138 0.1259 150 119 83
0.0003 -0.1028 0.1137 145 113 75
0.0003 -0.0992 0.1098 145 113 75
0.0011 -0.0970 0.1073 147 116 78
0.0010 -0.0851 0.0941 146 114 75
0.0017 -0.0851 0.0941 150 116 78
0.0026 -0.0924 0.1023 154 121 85
0.0034 -0.0927 0.1026 150 117 80
0.0039 -0.0851 0.0941 153 119 81
0.0042 -0.0780 0.0863 156 122 84
0.0051 -0.0815 0.0902 149 115 77
0.0051 -0.0723 0.0800 154 120 82
0.0043 -0.0603 0.0667 153 119 81
0.0035 -0.0496 0.0549 151 117 79
0.0051 -0.0641 0.0709 151 117 79
0.0056 -0.0641 0.0709 151 117 79
0.0174 -0.1985 0.2196 166 134 95
0.0052 -0.0496 0.0549 152 118 80
0.0048 -0.0461 0.0510 153 119 81
0.0063 -0.0523 0.0578 151 117 79
0.0056 -0.0461 0.0510 147 113 75
0.0052 -0.0405 0.0448 151 117 79
0.0056 -0.0404 0.0447 150 116 78
0.0249 -0.1701 0.1882 168 135 94
0.0258 -0.1666 0.1843 171 138 97
0.0264 -0.1701 0.1882 169 136 95
0.0052 -0.0319 0.0353 148 115 74
0.0046 -0.0284 0.0314 148 114 76
0.0057 -0.0329 0.0364 135 101 63
0.0059 -0.0329 0.0364 146 111 73
0.0060 -0.0319 0.0353 145 110 72
0.0065 -0.0330 0.0366 144 109 71
0.0056 -0.0284 0.0314 147 112 74
0.0044 -0.0216 0.0239 147 112 74
0.0038 -0.0179 0.0199 145 110 72
0.0030 -0.0142 0.0157 146 111 73
0.0323 -0.1453 0.1608 159 126 85
0.0025 -0.0106 0.0118 144 109 71
0.0334 -0.1347 0.1490 167 134 93
0.0009 -0.0035 0.0039 134 100 62
0.0009 -0.0035 0.0039 156 119 74
0.0010 -0.0035 0.0039 175 135 84
0.0010 -0.0035 0.0039 162 124 75
0.0370 -0.1276 0.1412 116 83 50
0.0381 -0.1276 0.1412 141 105 69
0.0055 -0.0180 0.0199 183 162 141
0.0022 -0.0071 0.0079 171 154 136
0.0436 -0.1382 0.1529 147 110 68
0.0070 -0.0217 0.0240 158 135 119
0.0482 -0.1453 0.1608 152 115 73
0.0507 -0.1489 0.1647 154 115 74
0.0531 -0.1560 0.1725 150 111 70
0.0228 -0.0653 0.0723 174 154 138
0.0557 -0.1560 0.1725 145 106 65
0.0346 -0.0948 0.1048 208 185 165
0.0622 -0.1701 0.1882 148 109 68
0.0583 -0.1560 0.1725 148 111 69
0.0378 -0.0987 0.1092 188 165 145
0.0295 -0.0771 0.0853 183 161 142
0.0305 -0.0780 0.0863 195 174 157
0.0377 -0.0944 0.1044 182 160 140
0.0384 -0.0942 0.1043 185 163 143
0.0369 -0.0886 0.0980 199 178 161
0.0433 -0.1020 0.1128 184 162 142
0.0858 -0.2020 0.2235 148 111 69
0.0875 -0.2020 0.2235 140 103 61
0.0923 -0.2091 0.2314 143 105 60
0.0513 -0.1141 0.1262 161 140 122
0.0957 -0.2127 0.2353 193 153 104
0.0542 -0.1181 0.1307 161 139 121
0.0533 -0.1141 0.1262 162 140 122
0.1009 -0.2162 0.2392 167 122 67
0.1026 -0.2197 0.2431 167 124 69
0.0505 -0.1063 0.1176 158 139 125
0.0568 -0.1174 0.1299 151 131 116
0.0557 -0.1132 0.1252 158 139 125
0.0532 -0.1063 0.1176 157 138 124
0.0514 -0.1028 0.1137 154 135 121
0.0541 -0.1063 0.1176 162 143 129
0.0609 -0.1177 0.1303 159 140 126
0.0532 -0.1028 0.1137 159 140 126
0.0598 -0.1136 0.1257 171 152 137
0.0608 -0.1138 0.1259 162 144 129
0.0640 -0.1179 0.1304 172 153 139
0.0626 -0.1136 0.1257 218 200 184
0.1210 -0.2162 0.2392 214 191 173
0.0644 -0.1133 0.1254 151 133 119
0.0702 -0.1218 0.1348 192 174 160
0.0613 -0.1063 0.1176 202 184 170
0.0713 -0.1220 0.1349 176 157 143
0.0748 -0.1262 0.1396 179 161 146
0.0784 -0.1303 0.1442 198 179 165
0.0795 -0.1303 0.1442 195 176 161
0.0769 -0.1260 0.1394 192 173 158
0.0780 -0.1262 0.1396 183 164 149
0.1403 -0.2268 0.2510 150 134 118
0.0765 -0.1220 0.1349 186 168 153
0.0747 -0.1176 0.1301 198 180 165
0.0685 -0.1063 0.1176 208 189 174
0.0740 -0.1135 0.1256 190 171 157
0.0749 -0.1133 0.1254 180 161 147
0.0787 -0.1176 0.1301 178 159 145
0.0798 -0.1177 0.1303 162 143 129
0.1537 -0.2268 0.2510 171 154 138
0.0837 -0.1220 0.1349 218 199 185
0.0846 -0.1218 0.1348 208 189 175
0.0856 -0.1218 0.1348 172 153 138
0.0866 -0.1218 0.1348 183 164 149
0.0906 -0.1259 0.1393 219 200 185
0.0947 -0.1301 0.1439 175 156 142
0.0927 -0.1259 0.1393 164 145 131
0.0906 -0.1217 0.1346 160 142 130
0.0980 -0.1301 0.1439 177 159 146
0.0918 -0.1205 0.1333 151 133 121
0.0938 -0.1218 0.1348 169 151 140
0.0950 -0.1220 0.1349 181 163 151
0.0891 -0.1132 0.1252 219 200 188
0.0901 -0.1132 0.1252 178 160 147
0.0944 -0.1174 0.1299 174 156 144
0.1843 -0.2268 0.2510 191 173 159
0.0966 -0.1177 0.1303 213 195 183
0.1012 -0.1221 0.1351 223 205 193
0.1058 -0.1263 0.1397 160 142 129
0.1859 -0.2197 0.2431 189 170 156
0.1079 -0.1263 0.1397 176 158 144
0.0948 -0.1099 0.1216 233 215 201
0.1109 -0.1260 0.1394 225 207 193
0.1194 -0.1344 0.1487 240 222 209
0.1131 -0.1262 0.1396 233 216 200
0.2034 -0.2268 0.2510 182 164 152
0.1104 -0.1220 0.1349 208 191 175
0.0962 -0.1063 0.1176 202 185 169
0.0930 -0.1028 0.1137 207 188 173
0.2040 -0.2233 0.2471 165 147 135
0.1086 -0.1177 0.1303 218 199 184
0.2092 -0.2268 0.2510 175 156 142
0.1055 -0.1133 0.1254 203 184 167
0.2130 -0.2268 0.2510 194 175 161
0.1311 -0.1384 0.1531 217 198 182
0.1401 -0.1466 0.1622 217 198 181
0.1414 -0.1466 0.1622 226 208 193
0.1214 -0.1259 0.1393 206 187 173
0.1266 -0.1302 0.1441 191 172 158
0.1358 -0.1384 0.1531 201 182 168
0.1182 -0.1205 0.1333 195 175 164
0.1411 -0.1426 0.1578 187 168 157
0.1342 -0.1345 0.1488 192 172 161
0.2247 -0.2233 0.2471 202 184 172
0.2283 -0.2268 0.2510 227 209 197
0.1321 -0.1302 0.1441 167 148 134
0.1374 -0.1343 0.1486 173 155 140
0.2340 -0.2268 0.2510 242 224 212
0.2377 -0.2304 0.2549 228 210 198
0.1354 -0.1302 0.1441 225 206 191
0.1410 -0.1345 0.1488 248 241 224
0.1226 -0.1170 0.1294 233 218 199
0.1420 -0.1344 0.1487 217 198 182
0.1432 -0.1344 0.1487 220 200 183
0.1443 -0.1344 0.1487 236 215 199
0.1455 -0.1345 0.1488 187 166 152
0.1556 -0.1426 0.1578 226 205 190
0.2532 -0.2304 0.2549 232 213 199
0.2571 -0.2304 0.2549 209 191 179
0.2590 -0.2304 0.2549 193 175 163
0.2630 -0.2339 0.2588 178 160 148
0.2649 -0.2304 0.2549 218 200 186
0.2605 -0.2233 0.2471 172 154 140
0.2624 -0.2233 0.2471 202 184 170
0.2642 -0.2233 0.2471 253 235 221
0.2703 -0.2268 0.2510 236 218 204
0.2723 -0.2268 0.2510 206 189 173
0.2742 -0.2268 0.2510 225 206 191
0.2761 -0.2268 0.2510 230 208 194
0.2780 -0.2268 0.2510 162 143 129
0.2755 -0.2233 0.2471 223 201 187
0.2774 -0.2233 0.2471 187 168 153
0.2793 -0.2233 0.2471 239 221 207
0.2812 -0.2233 0.2471 210 191 176
0.2831 -0.2233 0.2471 212 193 178
0.2849 -0.2233 0.2471 227 209 195
0.2914 -0.2268 0.2510 186 168 154
0.2952 -0.2268 0.2510 255 251 238
0.2925 -0.2233 0.2471 205 195 183
0.2990 -0.2268 0.2510 195 172 164
0.3009 -0.2268 0.2510 222 204 194
0.3056 -0.2304 0.2549 206 188 178
0.3076 -0.2304 0.2549 203 185 173
0.3095 -0.2304 0.2549 207 191 178
0.3115 -0.2304 0.2549 228 214 203
0.3134 -0.2304 0.2549 251 237 226
0.3105 -0.2268 0.2510 213 199 186
0.3154 -0.2304 0.2549 204 188 175
0.3124 -0.2268 0.2510 199 183 170
0.3173 -0.2304 0.2549 219 203 190
0.3192 -0.2304 0.2549 195 179 166
0.3212 -0.2304 0.2549 209 193 180
0.3231 -0.2304 0.2549 138 122 109
0.3281 -0.2339 0.2588 149 133 120
0.3251 -0.2304 0.2549 182 166 153
0.3220 -0.2268 0.2510 194 178 165
0.3289 -0.2304 0.2549 181 163 149
0.3328 -0.2304 0.2549 218 200 186
0.3348 -0.2304 0.2549 221 203 189
0.3367 -0.2304 0.2549 227 209 195
0.3387 -0.2304 0.2549 238 221 205
0.3406 -0.2304 0.2549 217 200 184
0.3425 -0.2304 0.2549 211 192 178
0.3392 -0.2268 0.2510 144 125 111
0.3411 -0.2268 0.2510 210 191 176
0.3537 -0.2339 0.2588 222 203 188
0.3557 -0.2339 0.2588 221 199 185
0.3523 -0.2304 0.2549 198 181 165
0.3542 -0.2304 0.2549 238 226 210
1.1879 -0.7727 0.8549 201 187 174
0.3616 -0.2339 0.2588 224 206 192
1.3917 -0.9003 0.9961 203 184 169
0.3636 -0.2339 0.2588 156 138 124
1.3993 -0.9003 0.9961 153 135 123
-1.4067 -0.9114 1.0000 215 160 106
-0.1269 -0.0822 0.0902 175 158 150
-1.3990 -0.9114 1.0000 211 158 104
-0.1262 -0.0822 0.0902 174 160 151
-1.3150 -0.8614 0.9451 215 162 108
-0.1310 -0.0858 0.0941 178 165 156
-0.1031 -0.0679 0.0745 159 146 138
-0.9067 -0.6005 0.6588 221 168 114
-1.0197 -0.6791 0.7451 225 172 118
-1.0140 -0.6791 0.7451 218 163 109
-0.1281 -0.0858 0.0941 169 159 149
-0.9765 -0.6577 0.7216 216 161 107
-0.1274 -0.0858 0.0941 158 145 136
-0.8971 -0.6076 0.6667 225 172 118
-0.1161 -0.0786 0.0863 159 146 137
-0.0844 -0.0572 0.0627 186 170 157
-0.9865 -0.6720 0.7373 226 173 119
-0.0840 -0.0572 0.0627 230 214 201
-0.0787 -0.0536 0.0588 227 211 198
-1.2574 -0.8614 0.9451 232 179 125
-0.0991 -0.0679 0.0745 221 205 192
-0.0887 -0.0608 0.0667 223 207 194
-0.9805 -0.6755 0.7412 236 183 129
-1.0161 -0.7041 0.7725 230 178 121
-0.7538 -0.5254 0.5765 234 182 125
-0.1333 -0.0929 0.1020 238 224 213
-0.1077 -0.0751 0.0824 210 200 190
-0.1026 -0.0715 0.0784 211 201 191
-0.9329 -0.6541 0.7176 231 176 120
-0.1122 -0.0786 0.0863 211 201 191
-0.8819 -0.6219 0.6824 235 180 124
-0.1064 -0.0751 0.0824 227 210 200
-0.9522 -0.6755 0.7412 230 175 118
-0.9366 -0.6684 0.7333 228 173 117
-0.1252 -0.0894 0.0980 146 129 121
-1.2596 -0.9043 0.9922 228 173 117
-0.8512 -0.6148 0.6745 220 165 111
-0.9149 -0.6648 0.7294 218 165 111
-0.1279 -0.0929 0.1020 168 151 143
-1.1684 -0.8542 0.9373 217 164 110
-1.0204 -0.7506 0.8235 216 163 109
-0.1215 -0.0894 0.0980 227 210 200
-1.2218 -0.9043 0.9922 216 163 109
-0.1256 -0.0929 0.1020 255 237 227
-1.2190 -0.9079 0.9961 219 166 112
-0.1200 -0.0894 0.0980 227 210 202
-1.2162 -0.9114 1.0000 222 163 107
-0.1240 -0.0929 0.1020 216 199 189
-1.2086 -0.9114 1.0000 255 228 201
-0.1232 -0.0929 0.1020 236 219 209
-1.2010 -0.9114 1.0000 207 190 183
-0.1272 -0.0965 0.1059 219 202 192
-1.1933 -0.9114 1.0000 185 167 157
-0.1217 -0.0929 0.1020 227 210 200
-0.1170 -0.0894 0.0980 215 198 188
-0.1123 -0.0858 0.0941 208 191 181
-1.1857 -0.9114 1.0000 207 188 181
-1.1781 -0.9114 1.0000 214 195 188
-0.0970 -0.0751 0.0824 219 202 192
-1.1705 -0.9114 1.0000 178 161 153
-0.1010 -0.0786 0.0863 177 160 150
-1.1446 -0.8971 0.9843 227 212 205
-1.1552 -0.9114 1.0000 190 175 168
-0.1087 -0.0858 0.0941 188 171 161
-0.1035 -0.0822 0.0902 167 150 140
-0.6572 -0.5254 0.5765 232 218 209
-0.1028 -0.0822 0.0902 215 198 188
-0.0984 -0.0786 0.0863 216 199 189
-0.0939 -0.0751 0.0824 203 186 176
-1.1235 -0.9043 0.9922 223 209 200
-0.0977 -0.0786 0.0863 222 205 195
-0.0970 -0.0786 0.0863 213 196 186
-0.1008 -0.0822 0.0902 214 200 189
-0.1080 -0.0894 0.0980 194 177 167
-0.1116 -0.0929 0.1020 216 199 189
-0.1073 -0.0894 0.0980 207 190 180
-0.1092 -0.0929 0.1020 229 213 200
-0.1168 -0.1001 0.1098 197 181 168
-0.1325 -0.1144 0.1255 189 173 160
-0.1201 -0.1037 0.1137 219 203 190
-0.1077 -0.0929 0.1020 209 193 180
-0.1192 -0.1037 0.1137 219 203 190
-0.1021 -0.0894 0.0980 162 144 132
-0.0980 -0.0858 0.0941 159 141 129
-0.2454 -0.2180 0.2392 224 208 195
-0.2417 -0.2180 0.2392 215 197 185
-0.2457 -0.2216 0.2431 207 189 177
-0.2438 -0.2216 0.2431 180 162 150
-0.2381 -0.2180 0.2392 184 166 154
-0.0920 -0.0849 0.0931 215 198 188
-0.0873 -0.0805 0.0884 210 193 183
-0.2344 -0.2180 0.2392 186 168 156
-0.2364 -0.2216 0.2431 236 218 206
-0.0898 -0.0849 0.0931 187 170 160
-0.0795 -0.0751 0.0824 216 199 189
-0.0891 -0.0849 0.0931 218 201 191
-0.0884 -0.0849 0.0931 198 181 171
-0.2253 -0.2180 0.2392 178 162 149
-0.0870 -0.0849 0.0931 212 196 183
-0.0905 -0.0890 0.0976 194 177 167
-0.0865 -0.0858 0.0941 220 203 193
-0.1018 -0.1018 0.1117 215 199 186
-0.2162 -0.2180 0.2392 249 229 218
-0.0878 -0.0893 0.0979 210 194 181
-0.0788 -0.0808 0.0886 195 178 165
-0.0945 -0.0978 0.1073 215 199 186
-0.0795 -0.0822 0.0902 220 204 191
-0.0855 -0.0893 0.0979 201 185 172
-0.0849 -0.0894 0.0981 200 183 173
-0.2037 -0.2145 0.2353 187 169 155
-0.0842 -0.0894 0.0981 221 205 194
-0.0833 -0.0893 0.0979 228 211 200
-0.0944 -0.1021 0.1120 241 223 213
-0.0896 -0.0978 0.1073 181 164 154
-0.0844 -0.0929 0.1020 219 203 190
-0.0918 -0.1021 0.1120 218 202 189
-0.0910 -0.1021 0.1120 202 186 173
-0.0977 -0.1106 0.1214 201 185 172
-0.0789 -0.0894 0.0980 212 196 183
-0.1876 -0.2145 0.2353 188 172 157
-0.1858 -0.2145 0.2353 175 157 143
-0.0876 -0.1021 0.1120 227 213 202
-0.0767 -0.0894 0.0980 222 208 197
-0.0867 -0.1021 0.1120 250 236 224
-0.0860 -0.1022 0.1122 240 223 212
-0.0850 -0.1021 0.1120 242 225 214
-0.1768 -0.2145 0.2353 255 240 228
-0.1798 -0.2180 0.2392 249 231 219
-0.1750 -0.2145 0.2353 178 160 148
-0.0757 -0.0937 0.1028 207 190 179
-0.0818 -0.1024 0.1123 201 184 174
-0.0810 -0.1024 0.1123 210 193 183
-0.0740 -0.0935 0.1026 226 209 199
-0.0727 -0.0929 0.1020 226 209 199
-0.0692 -0.0894 0.0980 218 201 191
-0.0784 -0.1024 0.1123 241 224 214
-0.0657 -0.0858 0.0941 235 218 208
-0.1570 -0.2073 0.2275 223 205 193
-0.0830 -0.1108 0.1215 233 216 206
-0.0643 -0.0858 0.0941 234 218 205
-0.0725 -0.0978 0.1073 217 201 188
-0.0681 -0.0929 0.1020 232 216 203
-0.0740 -0.1022 0.1122 183 166 156
-0.0732 -0.1022 0.1122 229 212 202
-0.1535 -0.2145 0.2353 221 205 192
-0.1492 -0.2109 0.2314 218 202 189
-0.1517 -0.2145 0.2353 205 189 176
-0.1542 -0.2180 0.2392 196 180 167
-0.1568 -0.2216 0.2431 203 187 174
-0.0706 -0.1022 0.1122 249 235 224
-0.0727 -0.1065 0.1169 235 221 210
-0.0717 -0.1064 0.1167 203 186 175
-0.1404 -0.2109 0.2314 207 191 178
-0.0587 -0.0894 0.0980 188 174 163
-0.0664 -0.1024 0.1123 215 202 193
-0.1351 -0.2109 0.2314 223 207 194
-0.0542 -0.0858 0.0941 195 178 168
-0.0580 -0.0929 0.1020 212 195 187
-0.0577 -0.0937 0.1028 190 173 165
-0.0568 -0.0935 0.1026 161 144 136
-0.1263 -0.2109 0.2314 194 178 163
-0.0579 -0.0981 0.1076 179 165 156
-0.0570 -0.0979 0.1075 220 206 196
-0.0499 -0.0858 0.0941 180 163 155
-0.0562 -0.0979 0.1075 206 190 181
-0.0555 -0.0981 0.1076 187 170 161
-0.0485 -0.0858 0.0941 189 172 164
-0.0570 -0.1024 0.1123 184 167 158
-0.1176 -0.2145 0.2353 236 222 209
-0.0528 -0.0978 0.1073 203 186 176
-0.1178 -0.2180 0.2392 193 177 164
-0.0520 -0.0978 0.1073 190 173 163
-0.0456 -0.0858 0.0941 195 178 168
-0.0534 -0.1021 0.1120 186 172 161
-0.1123 -0.2180 0.2392 215 201 188
-0.0516 -0.1018 0.1117 185 171 159
-0.0509 -0.1021 0.1120 187 172 161
-0.0455 -0.0929 0.1020 177 163 152
-0.0492 -0.1021 0.1120 178 163 152
-0.1015 -0.2145 0.2353 223 207 194
-0.1032 -0.2180 0.2392 216 200 187
-0.1049 -0.2216 0.2431 217 203 192
-0.0474 -0.1019 0.1118 186 169 159
-0.0415 -0.0894 0.0980 178 161 151
-0.0467 -0.1022 0.1122 187 170 160
-0.0458 -0.1022 0.1122 192 175 165
-0.0438 -0.0978 0.1073 140 123 113
-0.0450 -0.1022 0.1122 160 146 135
-0.0430 -0.0978 0.1073 178 164 153
-0.0440 -0.1019 0.1118 158 142 132
-0.0408 -0.0965 0.1059 176 159 149
-0.0393 -0.0929 0.1020 177 161 148
-0.0424 -0.1022 0.1122 238 222 209
-0.0890 -0.2145 0.2353 183 169 158
-0.0399 -0.0981 0.1076 196 181 168
-0.0407 -0.1022 0.1122 180 164 151
-0.0398 -0.1022 0.1122 166 150 137
-0.0836 -0.2145 0.2353 170 155 148
-0.0421 -0.1105 0.1212 159 143 130
-0.0380 -0.1019 0.1118 163 148 135
-0.0372 -0.1021 0.1120 161 146 133
-0.0364 -0.1021 0.1120 164 148 135
-0.0370 -0.1064 0.1167 164 148 135
-0.0347 -0.1021 0.1120 174 158 145
-0.0337 -0.1016 0.1115 168 152 139
-0.0316 -0.0978 0.1073 168 152 139
-0.0321 -0.1021 0.1120 166 151 138
-0.0307 -0.0976 0.1071 164 148 135
-0.0299 -0.0978 0.1073 149 135 122
-0.0639 -0.2145 0.2353 143 129 120
-0.0321 -0.1108 0.1215 203 187 174
-0.0311 -0.1106 0.1214 189 173 160
-0.0302 -0.1106 0.1214 185 169 156
-0.0292 -0.1106 0.1214 198 182 169
-0.0273 -0.1065 0.1169 173 155 143
-0.0274 -0.1106 0.1214 181 163 151
-0.0254 -0.1062 0.1165 200 182 169
-0.0246 -0.1105 0.1212 219 203 188
-0.0237 -0.1105 0.1212 218 202 188
-0.0219 -0.1064 0.1167 184 167 151
-0.0210 -0.1019 0.1118 191 174 158
-0.0202 -0.1021 0.1120 172 155 139
-0.0406 -0.2145 0.2353 181 167 154
-0.0412 -0.2180 0.2392 167 153 140
-0.0192 -0.1064 0.1167 184 167 152
-0.0394 -0.2180 0.2392 159 143 130
-0.0183 -0.1064 0.1167 197 180 162
-0.0158 -0.0965 0.1059 130 113 95
-0.0159 -0.1021 0.1120 190 173 156
-0.0156 -0.1060 0.1164 171 154 136
-0.0137 -0.0929 0.1020 181 164 146
-0.0132 -0.0894 0.0980 183 166 148
-0.0142 -0.1019 0.1118 179 162 147
-0.0133 -0.1019 0.1118 176 158 144
-0.0125 -0.1021 0.1120 189 171 157
-0.0116 -0.1021 0.1120 220 202 188
-0.0108 -0.1024 0.1123 189 171 157
-0.0090 -0.0929 0.1020 155 138 122
-0.0095 -0.1067 0.1170 169 152 135
-0.0086 -0.1067 0.1170 164 147 127
-0.0074 -0.1021 0.1120 142 116 92
-0.0065 -0.1021 0.1120 144 118 83
-0.0057 -0.1021 0.1120 138 110 70
-0.0050 -0.1064 0.1167 143 112 75
-0.0041 -0.1065 0.1169 146 117 81
-0.0036 -0.0929 0.1020 139 109 71
-0.0032 -0.1065 0.1169 137 108 72
-0.0028 -0.0929 0.1020 130 100 62
-0.0022 -0.1021 0.1120 147 118 81
-0.0014 -0.1021 0.1120 146 117 81
-0.0006 -0.1065 0.1169 148 117 81
-0.0011 -0.2145 0.2353 188 171 155
0.0003 -0.1064 0.1167 148 117 81
0.0003 -0.0929 0.1020 144 112 74
0.0012 -0.1022 0.1122 147 116 79
0.0010 -0.0894 0.0980 144 112 73
0.0019 -0.0978 0.1073 147 116 79
0.0025 -0.0890 0.0976 151 120 82
0.0033 -0.0891 0.0978 153 122 84
0.0029 -0.0786 0.0863 151 119 80
0.0039 -0.0858 0.0941 151 119 80
0.0046 -0.0858 0.0941 151 119 80
0.0053 -0.0856 0.0939 150 119 80
0.0057 -0.0813 0.0892 151 119 80
0.0050 -0.0715 0.0784 150 118 79
0.0057 -0.0730 0.0801 150 118 79
0.0053 -0.0608 0.0667 149 117 78
0.0062 -0.0649 0.0712 147 115 76
0.0063 -0.0608 0.0667 149 117 78
0.0204 -0.1823 0.2000 167 135 96
0.0060 -0.0500 0.0549 155 121 83
0.0056 -0.0465 0.0510 151 117 79
0.0047 -0.0393 0.0431 145 111 73
0.0225 -0.1751 0.1922 161 129 90
0.0067 -0.0488 0.0536 154 120 82
0.0059 -0.0429 0.0471 151 117 79
0.0249 -0.1716 0.1882 165 133 94
0.0066 -0.0429 0.0471 143 110 69
0.0060 -0.0371 0.0407 154 121 80
0.0070 -0.0411 0.0451 140 106 68
0.0059 -0.0332 0.0364 147 112 74
0.0062 -0.0333 0.0365 145 110 72
0.0294 -0.1573 0.1725 165 132 91
0.0063 -0.0322 0.0353 148 113 75
0.0306 -0.1501 0.1647 167 134 93
0.0046 -0.0218 0.0240 145 110 72
0.0040 -0.0181 0.0199 143 108 68
0.0041 -0.0179 0.0196 143 109 71
0.0034 -0.0144 0.0158 145 110 70
0.0331 -0.1394 0.1529 170 137 96
0.0334 -0.1358 0.1490 164 131 90
0.0342 -0.1394 0.1529 166 133 92
0.0018 -0.0072 0.0079 159 121 82
0.0019 -0.0072 0.0079 178 141 90
0.0359 -0.1287 0.1412 161 127 82
0.0042 -0.0145 0.0159 126 97 63
0.0021 -0.0072 0.0079 169 150 135
0.0424 -0.1394 0.1529 150 113 71
0.0435 -0.1430 0.1569 151 114 72
0.0058 -0.0181 0.0199 207 185 171
0.0482 -0.1465 0.1608 146 109 67
0.0036 -0.0108 0.0118 144 122 105
0.0049 -0.0143 0.0157 152 131 114
0.0012 -0.0036 0.0039 227 206 189
0.0519 -0.1465 0.1608 148 111 69
0.0532 -0.1501 0.1647 149 112 70
0.0582 -0.1644 0.1804 149 112 70
0.0583 -0.1608 0.1765 150 113 71
0.0610 -0.1644 0.1804 148 111 69
0.0623 -0.1680 0.1843 148 111 69
0.0651 -0.1716 0.1882 148 111 69
0.0664 -0.1751 0.1922 148 111 69
0.0368 -0.0949 0.1041 179 156 137
0.0340 -0.0858 0.0941 189 168 151
0.0381 -0.0941 0.1033 178 156 137
0.0767 -0.1859 0.2039 146 109 67
0.0768 -0.1823 0.2000 146 109 67
0.0843 -0.2002 0.2196 137 102 60
0.0430 -0.1001 0.1098 205 184 167
0.0504 -0.1152 0.1264 186 163 142
0.0513 -0.1150 0.1262 191 170 151
0.0975 -0.2145 0.2353 180 137 84
0.0530 -0.1145 0.1256 157 137 121
0.1059 -0.2288 0.2510 109 76 43
0.0539 -0.1143 0.1254 149 130 115
0.1095 -0.2323 0.2549 135 113 99
0.0528 -0.1100 0.1207 160 141 127
0.0558 -0.1143 0.1254 168 149 135
0.0497 -0.1001 0.1098 158 139 125
0.0578 -0.1145 0.1256 162 142 128
0.1155 -0.2288 0.2510 201 179 165
0.0565 -0.1102 0.1209 167 148 134
0.0575 -0.1103 0.1211 173 154 140
0.0584 -0.1102 0.1209 164 143 132
0.0539 -0.1001 0.1098 167 148 133
0.0604 -0.1105 0.1212 213 194 177
0.1211 -0.2216 0.2431 193 170 152
0.0555 -0.1001 0.1098 155 136 121
0.0623 -0.1106 0.1214 135 117 103
0.1228 -0.2180 0.2392 184 163 144
0.1268 -0.2252 0.2471 203 182 163
0.1287 -0.2252 0.2471 179 158 139
0.0689 -0.1187 0.1303 163 144 129
0.0699 -0.1189 0.1304 159 140 126
0.1301 -0.2180 0.2392 174 157 141
0.1341 -0.2216 0.2431 156 139 123
0.0754 -0.1230 0.1349 205 187 171
0.0739 -0.1189 0.1304 183 164 149
0.0747 -0.1186 0.1301 193 175 160
0.1464 -0.2323 0.2549 169 153 137
0.0685 -0.1072 0.1176 197 178 163
0.0768 -0.1187 0.1303 178 160 144
0.0750 -0.1145 0.1256 221 202 188
0.0759 -0.1145 0.1256 218 200 185
0.1518 -0.2288 0.2510 186 169 153
0.0798 -0.1187 0.1303 199 182 167
0.1537 -0.2288 0.2510 179 162 146
0.1532 -0.2252 0.2471 171 154 138
0.0847 -0.1230 0.1349 200 181 167
0.0827 -0.1187 0.1303 167 149 135
0.0722 -0.1037 0.1137 178 161 145
0.1588 -0.2252 0.2471 143 125 111
0.0786 -0.1102 0.1209 218 200 186
0.0723 -0.1001 0.1098 217 199 185
0.0835 -0.1143 0.1254 180 162 149
0.0819 -0.1108 0.1216 163 145 133
0.1709 -0.2288 0.2510 229 210 193
0.0897 -0.1187 0.1303 180 162 152
0.0783 -0.1037 0.1137 215 197 187
0.0873 -0.1143 0.1254 163 145 133
0.0881 -0.1141 0.1252 164 146 134
0.0924 -0.1184 0.1299 161 143 131
0.0902 -0.1143 0.1254 227 208 196
0.0913 -0.1145 0.1256 231 213 201
0.1785 -0.2216 0.2431 186 168 154
0.1804 -0.2216 0.2431 196 178 164
0.0942 -0.1146 0.1257 195 177 165
0.0952 -0.1146 0.1257 221 203 191
0.0962 -0.1146 0.1257 196 178 166
0.1878 -0.2216 0.2431 198 180 166
0.1055 -0.1232 0.1352 183 165 153
0.1062 -0.1228 0.1348 173 155 143
0.1147 -0.1314 0.1442 196 178 164
0.1121 -0.1272 0.1396 226 208 194
0.1017 -0.1144 0.1255 251 233 219
0.1104 -0.1230 0.1349 199 182 167
0.0930 -0.1037 0.1137 206 187 172
0.1114 -0.1230 0.1349 198 180 165
0.0971 -0.1072 0.1176 206 187 172
0.2026 -0.2216 0.2431 156 138 126
0.1097 -0.1189 0.1304 203 184 169
0.0956 -0.1037 0.1137 218 199 182
0.0923 -0.1001 0.1098 215 196 179
0.2063 -0.2216 0.2431 227 209 197
0.2082 -0.2216 0.2431 216 198 186
0.0459 -0.0480 0.0527 178 159 145
0.2187 -0.2288 0.2510 202 184 172
0.1186 -0.1230 0.1349 206 187 172
0.2156 -0.2216 0.2431 169 151 139
0.1081 -0.1102 0.1209 173 154 140
0.2193 -0.2216 0.2431 169 151 139
0.1271 -0.1273 0.1397 163 145 131
0.1187 -0.1179 0.1294 169 150 136
0.1043 -0.1037 0.1137 208 189 175
0.1269 -0.1251 0.1373 205 186 172
0.1343 -0.1313 0.1441 216 197 183
0.1398 -0.1355 0.1487 178 159 144
0.1366 -0.1314 0.1442 194 178 162
0.1189 -0.1144 0.1255 220 203 187
0.1421 -0.1356 0.1488 249 237 222
0.1376 -0.1313 0.1441 243 226 210
0.1284 -0.1215 0.1333 199 180 165
0.1444 -0.1356 0.1488 196 173 159
0.1256 -0.1179 0.1294 179 156 142
0.1218 -0.1144 0.1255 201 178 164
0.2567 -0.2252 0.2471 237 219 207
0.2586 -0.2252 0.2471 199 181 169
0.2563 -0.2216 0.2431 170 152 140
0.2624 -0.2252 0.2471 234 216 204
0.2642 -0.2252 0.2471 162 144 132
0.2619 -0.2216 0.2431 246 230 217
0.2680 -0.2252 0.2471 197 181 166
0.2699 -0.2252 0.2471 213 196 180
0.2761 -0.2288 0.2510 222 200 186
0.2736 -0.2252 0.2471 214 194 183
0.2755 -0.2252 0.2471 184 164 153
0.2774 -0.2252 0.2471 248 226 213
0.2749 -0.2216 0.2431 212 190 176
0.2767 -0.2216 0.2431 199 180 166
0.2786 -0.2216 0.2431 175 156 142
0.2804 -0.2216 0.2431 210 192 178
0.2868 -0.2252 0.2471 226 208 194
0.2841 -0.2216 0.2431 210 191 177
0.2860 -0.2216 0.2431 202 186 173
0.2925 -0.2252 0.2471 250 251 237
0.2897 -0.2216 0.2431 210 189 184
0.2915 -0.2216 0.2431 223 205 193
0.2981 -0.2252 0.2471 228 210 198
0.3048 -0.2288 0.2510 223 207 194
0.3067 -0.2288 0.2510 199 182 172
0.3086 -0.2288 0.2510 243 229 218
0.3105 -0.2288 0.2510 230 216 203
0.3075 -0.2252 0.2471 219 205 192
0.3143 -0.2288 0.2510 212 196 183
0.3212 -0.2323 0.2549 147 131 118
0.3251 -0.2323 0.2549 166 148 136
0.3220 -0.2288 0.2510 195 177 165
0.3239 -0.2288 0.2510 191 173 161
0.3258 -0.2288 0.2510 223 206 190
1.2981 -0.9114 1.0000 145 127 113
0.3277 -0.2288 0.2510 206 188 174
0.3296 -0.2288 0.2510 222 204 190
0.3264 -0.2252 0.2471 201 183 169
0.3334 -0.2288 0.2510 253 235 221
1.3129 -0.9007 0.9882 190 172 158
0.3320 -0.2252 0.2471 207 189 175
0.3373 -0.2288 0.2510 167 149 135
0.3339 -0.2252 0.2471 204 185 171
0.3358 -0.2252 0.2471 156 137 123
0.3430 -0.2288 0.2510 236 217 202
0.3484 -0.2323 0.2549 232 213 198
0.3503 -0.2323 0.2549 219 200 185
0.3577 -0.2359 0.2588 198 185 168
0.3596 -0.2359 0.2588 255 251 235
1.1825 -0.7756 0.8510 200 184 171
0.3616 -0.2359 0.2588 212 196 181
1.3917 -0.9079 0.9961 147 130 114
0.3691 -0.2395 0.2627 217 199 185
1.3993 -0.9079 0.9961 171 153 141
-1.4067 -0.9190 1.0000 220 165 111
-0.1048 -0.0685 0.0745 151 137 128
-1.3990 -0.9190 1.0000 223 168 114
-0.0988 -0.0649 0.0706 188 174 163
-1.2714 -0.8398 0.9137 221 168 114
-0.0982 -0.0649 0.0706 164 150 139
-0.8900 -0.5911 0.6431 223 170 116
-0.1085 -0.0721 0.0784 153 139 128
-0.8095 -0.5406 0.5882 220 167 113
-0.1079 -0.0721 0.0784 144 130 119
-1.0680 -0.7172 0.7804 221 168 114
-0.1073 -0.0721 0.0784 182 169 160
-0.1020 -0.0685 0.0745 161 148 139
-0.8860 -0.5983 0.6510 218 163 109
-0.8969 -0.6091 0.6627 219 164 110
-0.1115 -0.0757 0.0824 138 125 116
-1.2032 -0.8217 0.8941 218 165 111
-0.0792 -0.0541 0.0588 221 205 192
-1.3276 -0.9118 0.9922 216 163 109
-0.0840 -0.0577 0.0627 161 147 134
-0.8870 -0.6127 0.6667 217 164 110
-0.0939 -0.0649 0.0706 205 192 176
-0.8562 -0.5983 0.6510 206 154 97
-0.1032 -0.0721 0.0784 242 232 222
-0.0928 -0.0649 0.0706 246 236 227
-1.3025 -0.9154 0.9961 215 163 106
-1.3000 -0.9190 1.0000 214 159 103
-0.1122 -0.0793 0.0863 227 217 208
-0.9173 -0.6523 0.7098 215 160 104
-0.1115 -0.0793 0.0863 201 184 174
-0.9522 -0.6812 0.7412 213 161 104
-0.0957 -0.0685 0.0745 163 149 140
-0.8765 -0.6307 0.6863 222 170 113
-0.1052 -0.0757 0.0824 157 143 134
-1.2446 -0.9010 0.9804 220 168 111
-0.8462 -0.6163 0.6706 228 176 119
-0.1089 -0.0793 0.0863 177 160 152
-1.2543 -0.9190 1.0000 230 177 123
-0.7236 -0.5334 0.5804 232 179 125
-0.1271 -0.0937 0.1020 213 196 186
-0.7969 -0.5911 0.6431 230 177 123
-0.1312 -0.0973 0.1059 212 195 185
-0.1263 -0.0937 0.1020 207 190 180
-0.8113 -0.6055 0.6588 224 171 117
-0.7583 -0.5694 0.6196 227 172 118
-0.1296 -0.0973 0.1059 233 216 208
-1.2019 -0.9082 0.9882 206 162 123
-0.1240 -0.0937 0.1020 235 218 208
-1.2086 -0.9190 1.0000 255 236 221
-0.1232 -0.0937 0.1020 205 188 178
-1.2010 -0.9190 1.0000 165 150 143
-0.1272 -0.0973 0.1059 210 193 183
-0.1225 -0.0937 0.1020 201 184 174
-1.1933 -0.9190 1.0000 193 179 170
-0.1217 -0.0937 0.1020 208 191 181
-0.1170 -0.0901 0.0980 224 207 197
-0.1123 -0.0865 0.0941 226 209 199
-1.1857 -0.9190 1.0000 161 144 136
-0.1023 -0.0793 0.0863 227 210 200
-1.1781 -0.9190 1.0000 174 157 149
-0.1063 -0.0829 0.0902 178 161 151
-0.1016 -0.0793 0.0863 195 178 168
-0.0970 -0.0757 0.0824 215 198 188
-0.0924 -0.0721 0.0784 224 207 197
-1.1705 -0.9190 1.0000 150 133 126
-1.1629 -0.9190 1.0000 253 240 231
-0.1003 -0.0793 0.0863 229 212 202
-1.1552 -0.9190 1.0000 192 178 169
-0.0997 -0.0793 0.0863 192 175 165
-1.0711 -0.8578 0.9333 228 214 205
-0.0990 -0.0793 0.0863 231 214 204
-1.0998 -0.8866 0.9647 218 204 195
-0.1028 -0.0829 0.0902 178 161 151
-0.0984 -0.0793 0.0863 192 175 165
-0.0939 -0.0757 0.0824 204 187 177
-0.0933 -0.0757 0.0824 237 220 210
-0.0882 -0.0721 0.0784 211 197 186
-0.0920 -0.0757 0.0824 205 191 180
-0.1080 -0.0901 0.0980 166 149 139
-0.1116 -0.0937 0.1020 166 149 139
-0.1023 -0.0865 0.0941 231 215 202
-0.1058 -0.0901 0.0980 217 201 188
-0.0973 -0.0829 0.0902 219 203 190
-0.0840 -0.0721 0.0784 202 186 173
-0.1035 -0.0901 0.0980 204 188 175
-0.0864 -0.0757 0.0824 226 208 196
-0.0898 -0.0793 0.0863 202 184 172
-0.2454 -0.2199 0.2392 197 179 167
-0.0950 -0.0857 0.0933 224 207 197
-0.2435 -0.2199 0.2392 209 191 179
-0.2417 -0.2199 0.2392 214 196 184
-0.2360 -0.2162 0.2353 215 195 184
-0.2399 -0.2199 0.2392 221 201 190
-0.2381 -0.2199 0.2392 219 201 189
-0.0775 -0.0721 0.0784 206 190 177
-0.2306 -0.2162 0.2353 217 199 187
-0.2288 -0.2162 0.2353 227 209 197
-0.2270 -0.2162 0.2353 221 205 192
-0.2252 -0.2162 0.2353 226 210 197
-0.2234 -0.2162 0.2353 201 185 172
-0.2216 -0.2162 0.2353 214 198 185
-0.2253 -0.2199 0.2392 218 202 189
-0.0806 -0.0793 0.0863 193 177 164
-0.0793 -0.0793 0.0863 202 186 173
-0.2145 -0.2162 0.2353 224 206 194
-0.2091 -0.2126 0.2314 201 183 171
-0.2127 -0.2162 0.2353 205 187 173
-0.2109 -0.2162 0.2353 207 189 175
-0.2091 -0.2162 0.2353 213 195 181
-0.0822 -0.0857 0.0933 195 178 165
-0.2021 -0.2126 0.2314 213 195 181
-0.0849 -0.0902 0.0981 213 196 186
-0.0881 -0.0943 0.1026 232 215 205
-0.0913 -0.0986 0.1073 244 227 217
-0.0800 -0.0865 0.0941 247 230 220
-0.0865 -0.0943 0.1026 214 197 187
-0.0818 -0.0900 0.0979 213 197 184
-0.0772 -0.0857 0.0933 226 210 197
-0.1929 -0.2162 0.2353 202 186 173
-0.0834 -0.0943 0.1026 187 171 158
-0.1894 -0.2162 0.2353 189 173 160
-0.1876 -0.2162 0.2353 214 198 185
-0.1827 -0.2126 0.2314 202 184 172
-0.1858 -0.2162 0.2353 195 177 165
-0.0868 -0.1031 0.1122 224 206 195
-0.0896 -0.1074 0.1169 223 206 196
-0.0851 -0.1031 0.1122 208 191 180
-0.0843 -0.1031 0.1122 228 211 201
-0.0834 -0.1031 0.1122 220 202 192
-0.0723 -0.0903 0.0983 239 222 212
-0.0715 -0.0902 0.0981 219 202 192
-0.0650 -0.0829 0.0902 188 171 161
-0.0765 -0.0986 0.1073 147 130 120
-0.0671 -0.0865 0.0941 133 116 106
-0.0685 -0.0902 0.0981 210 193 183
-0.0678 -0.0903 0.0983 216 198 188
-0.0569 -0.0757 0.0824 200 183 173
-0.0737 -0.0992 0.1080 198 181 171
-0.0616 -0.0829 0.0902 197 181 168
-0.0760 -0.1034 0.1125 187 172 159
-0.0688 -0.0948 0.1031 205 189 176
-0.1475 -0.2054 0.2235 242 224 212
-0.0641 -0.0903 0.0983 246 228 218
-0.1517 -0.2162 0.2353 221 205 192
-0.0716 -0.1032 0.1123 235 221 210
-0.0707 -0.1032 0.1123 230 217 205
-0.0617 -0.0901 0.0980 218 206 194
-0.0668 -0.0988 0.1075 210 195 184
-0.0631 -0.0945 0.1028 228 211 201
-0.0595 -0.0902 0.0981 178 161 151
-0.0588 -0.0902 0.0981 224 207 199
-0.0580 -0.0902 0.0981 236 219 209
-0.1328 -0.2090 0.2275 210 194 181
-0.0565 -0.0902 0.0981 205 188 180
-0.0558 -0.0902 0.0981 213 196 188
-0.0551 -0.0903 0.0983 218 201 192
-0.0544 -0.0903 0.0983 165 148 140
-0.0536 -0.0903 0.0983 190 176 167
-0.0464 -0.0793 0.0863 175 161 152
-0.0443 -0.0757 0.0824 161 147 138
-0.0422 -0.0721 0.0784 166 152 143
-0.0447 -0.0775 0.0843 203 186 179
-0.1189 -0.2090 0.2275 190 176 163
-0.0555 -0.0989 0.1076 192 175 166
-0.0546 -0.0988 0.1075 226 210 201
-0.0537 -0.0988 0.1075 196 179 170
-0.1141 -0.2162 0.2353 195 179 164
-0.0535 -0.1031 0.1122 187 170 160
-0.1068 -0.2090 0.2275 255 245 231
-0.0541 -0.1076 0.1170 189 175 164
-0.0471 -0.0937 0.1020 191 177 166
-0.0453 -0.0901 0.0980 189 175 164
-0.0435 -0.0865 0.0941 191 177 166
-0.1051 -0.2126 0.2314 230 214 201
-0.1069 -0.2162 0.2353 226 210 197
-0.1087 -0.2199 0.2392 211 195 182
-0.0480 -0.0988 0.1075 179 165 154
-0.0492 -0.1031 0.1122 178 163 152
-0.0430 -0.0901 0.0980 179 165 154
-0.0432 -0.0937 0.1020 171 154 144
-0.0448 -0.0989 0.1076 189 172 162
-0.0458 -0.1031 0.1122 170 153 143
-0.0393 -0.0901 0.0980 166 152 141
-0.0442 -0.1032 0.1123 204 188 178
-0.0434 -0.1034 0.1125 196 180 168
-0.0442 -0.1076 0.1170 198 182 169
-0.0857 -0.2126 0.2314 187 173 160
-0.0390 -0.0988 0.1075 172 156 143
-0.0398 -0.1031 0.1122 178 162 149
-0.0389 -0.1028 0.1118 170 154 141
-0.0845 -0.2235 0.2431 187 173 162
-0.0381 -0.1029 0.1120 190 174 161
-0.0373 -0.1032 0.1123 186 170 157
-0.0348 -0.0986 0.1073 181 165 152
-0.0777 -0.2199 0.2392 189 175 164
-0.0355 -0.1028 0.1118 185 169 157
-0.0316 -0.0937 0.1020 180 164 151
-0.0339 -0.1031 0.1122 187 171 158
-0.0330 -0.1031 0.1122 169 153 140
-0.0322 -0.1031 0.1122 159 143 130
-0.0308 -0.0986 0.1073 162 146 133
-0.0313 -0.1029 0.1120 157 141 128
-0.0274 -0.0901 0.0980 155 139 126
-0.0305 -0.1032 0.1123 166 150 137
-0.0321 -0.1117 0.1215 154 138 125
-0.0299 -0.1074 0.1169 170 152 140
-0.0290 -0.1074 0.1169 142 126 113
-0.0253 -0.0937 0.1020 164 148 135
-0.0282 -0.1074 0.1169 195 179 166
-0.0567 -0.2162 0.2353 178 162 149
-0.0272 -0.1072 0.1167 187 171 158
-0.0239 -0.0973 0.1059 200 182 170
-0.0244 -0.1029 0.1120 194 176 164
-0.0246 -0.1072 0.1167 223 205 193
-0.0215 -0.0937 0.1020 215 199 186
-0.0227 -0.1028 0.1118 195 179 166
-0.0209 -0.0986 0.1073 224 208 195
-0.0219 -0.1072 0.1167 186 170 156
-0.0424 -0.2162 0.2353 183 167 154
-0.0412 -0.2199 0.2392 187 174 158
-0.0193 -0.1074 0.1169 147 131 116
-0.0198 -0.1160 0.1262 149 133 117
-0.0173 -0.1009 0.1098 158 142 126
-0.0352 -0.2162 0.2353 171 155 142
-0.0152 -0.0986 0.1073 180 164 148
-0.0144 -0.0986 0.1073 188 172 157
-0.0138 -0.0942 0.1024 181 164 148
-0.0124 -0.0900 0.0979 175 158 142
-0.0117 -0.0902 0.0981 180 162 148
-0.0120 -0.0986 0.1073 142 124 110
-0.0112 -0.0988 0.1075 142 124 110
-0.0104 -0.0989 0.1076 198 181 165
-0.0099 -0.1119 0.1217 206 189 173
-0.0082 -0.1034 0.1125 202 184 170
-0.0149 -0.2090 0.2275 196 177 162
-0.0063 -0.0989 0.1076 92 72 51
-0.0051 -0.0937 0.1020 145 121 93
-0.0044 -0.0945 0.1028 145 115 81
-0.0038 -0.0988 0.1075 140 111 76
-0.0030 -0.0989 0.1076 129 100 66
-0.0021 -0.0988 0.1075 135 106 72
-0.0014 -0.1029 0.1120 148 119 84
-0.0005 -0.1031 0.1122 151 119 85
0.0003 -0.1032 0.1123 149 118 82
0.0011 -0.0988 0.1075 147 116 79
0.0019 -0.0945 0.1028 148 117 79
0.0025 -0.0901 0.0980 148 116 77
0.0024 -0.0865 0.0941 148 116 77
0.0033 -0.0903 0.0983 152 121 84
0.0095 -0.2126 0.2314 172 154 140
0.0048 -0.0903 0.0983 154 123 85
0.0126 -0.2054 0.2235 168 149 132
0.0060 -0.0864 0.0941 149 117 79
0.0071 -0.0908 0.0987 151 119 80
0.0062 -0.0793 0.0863 151 119 80
0.0053 -0.0685 0.0745 152 120 81
0.0167 -0.1946 0.2118 150 120 84
0.0170 -0.1982 0.2157 149 119 81
0.0184 -0.1946 0.2118 162 132 94
0.0072 -0.0698 0.0759 143 111 72
0.0063 -0.0613 0.0667 146 114 75
0.0204 -0.1838 0.2000 163 133 95
0.0073 -0.0614 0.0669 149 115 77
0.0064 -0.0541 0.0588 147 113 75
0.0058 -0.0451 0.0491 145 111 73
0.0095 -0.0700 0.0762 147 113 75
0.0067 -0.0491 0.0534 155 121 83
0.0071 -0.0493 0.0537 146 112 74
0.0254 -0.1766 0.1922 165 133 94
0.0075 -0.0493 0.0537 148 115 74
0.0079 -0.0494 0.0537 144 111 70
0.0077 -0.0455 0.0495 120 86 48
0.0081 -0.0455 0.0495 143 109 71
0.0070 -0.0396 0.0431 145 110 72
0.0062 -0.0335 0.0364 149 114 76
0.0053 -0.0288 0.0314 149 114 76
0.0057 -0.0296 0.0322 146 111 73
0.0052 -0.0258 0.0281 146 111 73
0.0054 -0.0258 0.0281 144 109 71
0.0045 -0.0216 0.0235 145 110 72
0.0040 -0.0183 0.0199 144 109 69
0.0041 -0.0183 0.0199 142 108 70
0.0033 -0.0144 0.0157 142 108 70
0.0331 -0.1406 0.1529 172 139 98
0.0026 -0.0109 0.0118 152 118 73
0.0037 -0.0146 0.0158 156 119 75
0.0027 -0.0108 0.0118 148 110 63
0.0019 -0.0072 0.0079 178 137 91
0.0356 -0.1370 0.1490 161 126 84
0.0019 -0.0072 0.0079 108 76 38
0.0359 -0.1297 0.1412 168 134 89
0.0052 -0.0183 0.0199 162 144 122
0.0076 -0.0260 0.0283 176 157 140
0.0053 -0.0180 0.0196 194 175 160
0.0044 -0.0146 0.0159 217 198 183
0.0022 -0.0072 0.0079 203 185 165
0.0391 -0.1297 0.1412 149 112 68
0.0482 -0.1514 0.1647 151 114 72
0.0482 -0.1478 0.1608 151 114 72
0.0541 -0.1658 0.1804 151 112 71
0.0531 -0.1586 0.1725 149 112 70
0.0544 -0.1586 0.1725 148 111 69
0.0582 -0.1658 0.1804 151 114 72
0.0596 -0.1658 0.1804 147 110 68
0.0610 -0.1658 0.1804 148 111 69
0.0637 -0.1694 0.1843 148 111 69
0.0352 -0.0917 0.0998 200 178 158
0.0340 -0.0865 0.0941 178 157 140
0.0381 -0.0949 0.1033 180 158 139
0.0406 -0.0992 0.1080 190 167 148
0.0900 -0.2199 0.2392 157 119 74
0.0888 -0.2126 0.2314 162 124 77
0.0457 -0.1074 0.1169 200 177 156
0.0486 -0.1119 0.1217 202 179 158
0.0513 -0.1160 0.1262 212 189 168
0.0494 -0.1116 0.1214 191 168 148
0.0973 -0.2199 0.2392 173 136 84
0.0520 -0.1153 0.1254 131 111 94
0.0509 -0.1108 0.1205 166 147 133
0.0518 -0.1108 0.1205 161 142 128
0.0527 -0.1108 0.1205 165 146 132
0.0537 -0.1109 0.1207 162 143 129
0.0568 -0.1154 0.1256 160 141 126
0.0497 -0.1009 0.1098 158 139 125
0.0556 -0.1111 0.1209 160 141 127
0.0544 -0.1069 0.1164 159 140 126
0.0575 -0.1113 0.1211 158 139 125
0.0511 -0.0973 0.1059 166 146 135
0.0572 -0.1071 0.1165 164 145 130
0.1192 -0.2199 0.2392 207 186 167
0.0590 -0.1072 0.1167 194 175 158
0.0566 -0.1028 0.1118 199 180 162
0.0523 -0.0937 0.1020 115 97 83
0.0608 -0.1072 0.1167 187 168 154
0.0617 -0.1072 0.1167 197 178 164
0.0676 -0.1159 0.1261 187 168 154
0.1280 -0.2162 0.2353 180 163 147
0.0669 -0.1116 0.1214 149 130 115
0.0704 -0.1157 0.1259 193 174 159
0.0712 -0.1154 0.1256 201 183 168
0.1419 -0.2271 0.2471 169 153 137
0.0758 -0.1197 0.1303 216 198 182
0.1460 -0.2307 0.2510 157 141 125
0.0768 -0.1197 0.1303 194 175 160
0.0750 -0.1154 0.1256 183 164 150
0.0789 -0.1199 0.1304 181 162 148
0.0688 -0.1045 0.1137 187 169 155
0.0769 -0.1154 0.1256 183 165 151
0.1537 -0.2307 0.2510 175 157 143
0.1532 -0.2271 0.2471 172 155 139
0.0788 -0.1154 0.1256 202 184 170
0.0689 -0.1009 0.1098 189 171 157
0.0768 -0.1111 0.1209 179 161 147
0.0777 -0.1111 0.1209 180 162 148
